ply
format ascii 1.0
comment Created by CloudCompare v2.11.1 (Anoia)
comment Created 2020/09/10 21:40
obj_info Generated by CloudCompare!
element vertex 1198
property float x
property float y
property float z
property uchar red
property uchar green
property uchar blue
end_header
-0.239907 0.128852 0.743855 201 216 233 
-0.235491 0.127789 0.735464 202 217 234 
-0.231611 0.127746 0.735011 201 216 233 
-0.227462 0.127254 0.730585 199 214 231 
-0.223341 0.127208 0.730104 181 200 220 
-0.219193 0.126594 0.725676 63 79 98 
-0.215157 0.126114 0.720287 68 85 101 
-0.211277 0.126071 0.719834 67 82 95 
-0.207312 0.126461 0.72429 63 78 91 
-0.203432 0.126418 0.723837 61 76 89 
-0.199432 0.126374 0.72337 61 76 89 
-0.195516 0.125895 0.717995 62 75 86 
-0.191516 0.125851 0.717528 59 72 83 
-0.187635 0.125808 0.717075 61 74 85 
-0.183635 0.125763 0.716608 62 75 86 
-0.179669 0.126154 0.721064 60 70 84 
-0.175668 0.126109 0.720597 130 141 152 
-0.171789 0.126066 0.720144 207 220 229 
-0.167787 0.126022 0.719677 201 216 233 
-0.163787 0.125977 0.719211 202 217 234 
-0.159907 0.125934 0.718758 201 217 236 
-0.155906 0.12589 0.718291 202 218 237 
-0.15193 0.126414 0.721771 200 216 235 
-0.147929 0.126369 0.721304 201 217 236 
-0.144075 0.126772 0.724796 202 218 237 
-0.140075 0.126727 0.724329 200 216 237 
-0.13598 0.127127 0.727784 200 216 237 
-0.132004 0.127651 0.731263 210 226 247 
-0.127916 0.128163 0.735707 76 90 112 
-0.12394 0.128686 0.739186 68 82 104 
-0.119938 0.128641 0.738719 62 77 94 
-0.115843 0.129042 0.742174 61 76 91 
-0.111722 0.128997 0.741693 59 74 89 
-0.10772 0.128952 0.741226 59 74 89 
-0.103813 0.128462 0.736838 59 74 89 
-0.0999963 0.127295 0.727528 59 74 87 
-0.0959078 0.127807 0.731971 59 74 87 
-0.0919941 0.127206 0.726594 60 75 88 
-0.0880902 0.126594 0.722195 58 70 84 
-0.0843038 0.126107 0.717821 153 162 174 
-0.0805195 0.125619 0.713437 204 217 228 
-0.0769433 0.124576 0.704157 201 216 233 
-0.0732138 0.123856 0.6988 198 214 235 
-0.0690633 0.124489 0.703238 200 218 241 
-0.0653328 0.123768 0.697881 199 217 240 
-0.0616091 0.12328 0.693504 199 217 240 
-0.0581012 0.122228 0.685219 196 214 237 
-0.054379 0.121618 0.680841 199 217 240 
-0.0502814 0.122141 0.684306 198 216 239 
-0.0458476 0.123105 0.691665 198 216 239 
-0.0410311 0.124611 0.704885 209 225 244 
-0.0365356 0.125575 0.712247 59 74 91 
-0.0320412 0.126539 0.719598 56 70 90 
-0.0271563 0.128056 0.731824 55 70 87 
-0.0223729 0.129116 0.741116 53 68 83 
-0.0173651 0.130753 0.75333 55 70 85 
-0.0125739 0.131825 0.761634 53 68 83 
-0.00851242 0.13178 0.76116 53 68 83 
-0.00442053 0.131734 0.760683 54 69 84 
-0.00063625 0.131125 0.756308 56 71 86 
0.0030335 0.130526 0.750949 57 72 87 
0.0067572 0.129917 0.746581 61 73 89 
0.0103979 0.12932 0.741236 209 224 239 
0.0137223 0.128269 0.732962 197 214 228 
0.0164211 0.126557 0.718863 200 216 235 
0.0199253 0.125961 0.713534 223 243 255 
0.0235266 0.125353 0.70917 242 255 255 
0.0279271 0.125872 0.7126 229 232 233 
0.0315133 0.125264 0.708238 245 248 249 
0.034651 0.124338 0.699997 252 255 254 
0.0381842 0.12373 0.695641 223 231 230 
0.0421472 0.123686 0.695179 228 236 235 
0.0461083 0.123642 0.694716 227 233 231 
0.0500685 0.123598 0.694254 241 247 245 
0.0540287 0.123554 0.693792 242 250 247 
0.0579918 0.12351 0.69333 240 248 245 
0.0613459 0.123038 0.688019 169 169 165 
0.0659178 0.123422 0.692405 138 118 108 
0.0698733 0.123378 0.691943 145 120 100 
0.0743496 0.123896 0.695364 148 121 99 
0.0788547 0.124291 0.698781 198 175 154 
0.0851092 0.12636 0.714791 191 173 153 
0.0896889 0.126756 0.718189 196 178 158 
0.103272 0.135026 0.784558 150 133 115 
0.119588 0.145038 0.867334 125 112 99 
-0.468753 0.130703 0.733189 119 111 99 
-0.464874 0.13066 0.732736 119 105 90 
-0.460995 0.130617 0.732283 210 189 172 
-0.457115 0.130574 0.731831 220 199 182 
-0.452241 0.129952 0.727318 221 200 183 
-0.448603 0.129912 0.726893 148 123 103 
-0.443969 0.129413 0.722421 150 115 89 
-0.440602 0.129823 0.72596 155 118 86 
-0.436722 0.129779 0.725507 153 114 83 
-0.432088 0.129281 0.721034 153 114 83 
-0.428207 0.129238 0.720581 155 116 83 
-0.425083 0.12965 0.724149 152 113 80 
-0.421203 0.129607 0.723696 154 117 85 
-0.417323 0.129564 0.723243 138 116 88 
-0.413954 0.130093 0.726794 157 158 129 
-0.410073 0.13005 0.726341 182 194 168 
-0.406194 0.130007 0.725888 140 155 130 
-0.402314 0.129964 0.725435 152 167 140 
-0.397683 0.129345 0.720951 192 207 180 
-0.393803 0.129302 0.720498 157 168 147 
-0.389923 0.129259 0.720046 166 180 158 
-0.385531 0.128763 0.715601 175 190 165 
-0.381651 0.12872 0.715148 139 156 128 
-0.378284 0.129129 0.718687 182 205 171 
-0.374914 0.129659 0.722238 174 199 164 
-0.371035 0.129616 0.721785 191 208 192 
-0.367664 0.130146 0.725336 206 218 220 
-0.364807 0.131128 0.732878 207 218 227 
-0.361324 0.131646 0.737392 207 217 231 
-0.357843 0.132165 0.741906 209 219 233 
-0.354474 0.132573 0.745455 207 217 231 
-0.350861 0.1331 0.748977 207 217 233 
-0.346982 0.133057 0.748524 206 216 234 
-0.342859 0.133011 0.748043 207 217 235 
-0.33898 0.132968 0.74759 203 213 231 
-0.33459 0.132352 0.743134 205 215 233 
-0.330468 0.132306 0.742653 206 216 234 
-0.326077 0.131812 0.738199 205 215 233 
-0.322198 0.131769 0.737746 203 213 231 
-0.318318 0.131726 0.737293 216 226 242 
-0.314707 0.132131 0.740814 72 82 98 
-0.310828 0.132088 0.740362 73 81 96 
-0.307215 0.132615 0.743884 66 76 90 
-0.303092 0.132569 0.743402 60 70 84 
-0.299482 0.132975 0.746913 60 70 84 
-0.295871 0.133503 0.750436 58 70 84 
-0.291481 0.132886 0.74598 54 69 82 
-0.287602 0.132843 0.745527 52 67 80 
-0.283479 0.132797 0.745046 53 68 81 
-0.27933 0.132305 0.74063 53 68 81 
-0.275478 0.132708 0.744112 56 68 82 
-0.271865 0.133235 0.747634 86 92 103 
-0.267985 0.133192 0.747181 213 222 232 
-0.263863 0.133146 0.7467 200 211 222 
-0.259984 0.133103 0.746248 203 213 227 
-0.256257 0.133741 0.750735 200 212 228 
-0.252135 0.133695 0.750254 203 215 231 
-0.248524 0.134101 0.753774 201 216 233 
-0.24398 0.132925 0.74438 198 213 230 
-0.239562 0.131862 0.735989 201 216 233 
-0.235174 0.131246 0.731533 199 214 231 
-0.231293 0.131203 0.73108 198 213 230 
-0.227146 0.130711 0.726654 199 214 231 
-0.223266 0.130668 0.726201 154 170 189 
-0.219231 0.130065 0.72081 69 86 102 
-0.214954 0.129461 0.71539 65 80 95 
-0.211229 0.129976 0.719876 63 78 91 
-0.20735 0.129933 0.719423 61 76 89 
-0.203228 0.129887 0.718942 61 76 89 
-0.199469 0.129845 0.718504 62 77 90 
-0.195468 0.129801 0.718037 62 77 90 
-0.191433 0.129199 0.712646 62 77 90 
-0.187587 0.129713 0.717117 61 78 90 
-0.183586 0.129669 0.71665 61 77 87 
-0.179707 0.129625 0.716198 55 67 81 
-0.175706 0.129581 0.715731 212 225 234 
-0.171705 0.129536 0.715264 198 214 224 
-0.167825 0.129493 0.714811 197 212 229 
-0.16379 0.128892 0.70942 198 212 232 
-0.159944 0.129406 0.713891 199 213 233 
-0.155944 0.129361 0.713424 200 216 235 
-0.151943 0.129317 0.712958 201 217 238 
-0.148064 0.129273 0.712505 198 214 235 
-0.143975 0.129786 0.716948 198 214 235 
-0.139974 0.129741 0.716481 200 216 237 
-0.136023 0.13071 0.723906 198 214 235 
-0.132023 0.130666 0.723439 213 229 248 
-0.128049 0.131068 0.726908 70 84 106 
-0.123952 0.13159 0.730373 66 77 100 
-0.119862 0.132223 0.734818 65 80 97 
-0.115861 0.132179 0.734351 62 77 94 
-0.11186 0.132134 0.733884 59 74 91 
-0.107859 0.13209 0.733417 59 74 89 
-0.103859 0.132045 0.73295 59 74 89 
-0.0999464 0.131323 0.727572 59 74 87 
-0.0959458 0.131278 0.727105 57 72 85 
-0.0920409 0.130667 0.722705 61 76 89 
-0.0880403 0.130623 0.722239 57 72 85 
-0.0842539 0.130134 0.717865 156 167 178 
-0.0805663 0.12908 0.709548 201 214 225 
-0.0768949 0.128482 0.7042 198 213 228 
-0.0731639 0.127883 0.698844 198 212 232 
-0.0692239 0.127839 0.698384 198 214 235 
-0.0655007 0.127231 0.694006 198 214 235 
-0.0617759 0.126743 0.689639 200 216 237 
-0.0580528 0.126134 0.685261 198 217 237 
-0.0545458 0.125081 0.676976 196 215 235 
-0.0504507 0.125482 0.68043 198 217 237 
-0.0460749 0.126568 0.687807 194 213 233 
-0.0416413 0.127533 0.695165 212 226 246 
-0.036764 0.129038 0.708379 62 74 92 
-0.0322697 0.130002 0.71573 58 69 90 
-0.0273821 0.131641 0.727968 55 70 87 
-0.0225999 0.132701 0.73725 54 69 86 
-0.0175909 0.134338 0.749473 55 70 87 
-0.0125225 0.135975 0.761679 54 69 84 
-0.00846101 0.135929 0.761205 55 70 85 
-0.00467664 0.13532 0.75683 56 71 86 
-0.00100847 0.1346 0.75147 56 71 86 
0.00308341 0.134555 0.750993 57 72 87 
0.00680861 0.134067 0.746626 56 71 86 
0.0100799 0.132906 0.73738 206 221 236 
0.0131772 0.131757 0.727168 197 214 228 
0.0164725 0.130706 0.718908 197 214 230 
0.0199752 0.129989 0.713577 225 242 255 
0.0235765 0.129381 0.709213 242 255 255 
0.0275774 0.129337 0.708746 214 226 230 
0.0315632 0.129292 0.708281 188 200 204 
0.0346994 0.128243 0.70004 249 255 254 
0.03867 0.128199 0.699576 249 255 255 
0.0421971 0.127715 0.695222 248 255 253 
0.0461582 0.12767 0.69476 249 255 254 
0.0501184 0.127626 0.694298 240 251 247 
0.0534948 0.127031 0.688984 243 255 255 
0.0574464 0.126987 0.688522 242 255 255 
0.0607839 0.126393 0.683213 203 211 210 
0.0647167 0.126349 0.682754 123 109 103 
0.0693053 0.126855 0.687139 145 120 100 
0.0732455 0.126811 0.686679 147 120 98 
0.0778493 0.127318 0.691062 188 165 144 
0.0834237 0.128715 0.702229 191 173 153 
0.0891903 0.130344 0.714364 200 182 162 
0.0951299 0.13196 0.727455 115 100 88 
0.117385 0.147674 0.851896 121 106 94 
-0.472586 0.134652 0.733684 114 106 94 
-0.468705 0.134609 0.733231 117 109 95 
-0.464826 0.134565 0.732778 119 100 87 
-0.460946 0.134522 0.732326 228 207 190 
-0.457067 0.134479 0.731873 221 200 183 
-0.452191 0.133979 0.727362 221 200 183 
-0.448553 0.133939 0.726937 129 102 78 
-0.444431 0.133893 0.726456 151 116 88 
-0.439798 0.133274 0.721982 147 110 80 
-0.435919 0.133231 0.721529 146 107 76 
-0.432039 0.133188 0.721076 153 114 81 
-0.428159 0.133145 0.720623 152 113 80 
-0.424279 0.133101 0.720171 149 110 77 
-0.421154 0.133634 0.72374 149 117 85 
-0.417273 0.133591 0.723287 169 154 126 
-0.413394 0.133548 0.722834 159 167 138 
-0.410025 0.133956 0.726383 167 179 151 
-0.406145 0.133913 0.72593 147 162 135 
-0.401512 0.133416 0.721447 143 158 133 
-0.397633 0.133372 0.720995 150 165 138 
-0.393753 0.133329 0.720542 140 152 128 
-0.389362 0.132713 0.716096 171 186 161 
-0.385483 0.13267 0.715643 147 162 135 
-0.381603 0.132627 0.71519 137 156 126 
-0.377723 0.132583 0.714738 175 199 167 
-0.374354 0.133113 0.718278 169 198 164 
-0.370475 0.13307 0.717825 199 216 202 
-0.367106 0.133478 0.721375 205 217 221 
-0.364248 0.13446 0.728917 207 218 229 
-0.360637 0.134988 0.732439 205 215 229 
-0.357395 0.135631 0.736983 205 215 229 
-0.353914 0.136028 0.741495 205 215 229 
-0.350301 0.136555 0.745017 202 212 226 
-0.346422 0.136512 0.744565 203 213 227 
-0.342542 0.136468 0.744112 201 211 225 
-0.338421 0.136423 0.743631 203 213 227 
-0.334031 0.135806 0.739175 203 213 227 
-0.330152 0.135763 0.738722 202 212 226 
-0.325873 0.135281 0.733304 202 212 226 
-0.32175 0.135235 0.732823 203 213 229 
-0.317871 0.135192 0.73237 215 225 241 
-0.313991 0.135149 0.731918 65 73 90 
-0.310268 0.135542 0.736402 69 77 94 
-0.306388 0.135499 0.735949 66 76 90 
-0.302776 0.136026 0.739471 63 75 89 
-0.299163 0.136554 0.742993 61 73 87 
-0.295041 0.136508 0.742512 61 73 87 
-0.291161 0.136465 0.74206 61 73 87 
-0.286772 0.135848 0.737604 59 71 85 
-0.282892 0.135805 0.737151 58 70 84 
-0.279012 0.135762 0.736698 59 71 85 
-0.275157 0.136287 0.740192 61 73 87 
-0.271278 0.136244 0.739739 111 120 130 
-0.267668 0.136649 0.74325 209 218 228 
-0.263546 0.136604 0.742769 200 211 222 
-0.259666 0.13656 0.742316 201 212 223 
-0.255811 0.137085 0.74581 200 212 226 
-0.251931 0.137042 0.745357 199 211 225 
-0.248205 0.13768 0.749844 197 212 225 
-0.243662 0.136382 0.740449 198 213 228 
-0.239246 0.135319 0.732057 198 213 228 
-0.235098 0.134706 0.72763 197 212 227 
-0.230821 0.134223 0.722212 198 213 228 
-0.22694 0.13418 0.721759 197 212 227 
-0.223061 0.134137 0.721306 120 135 152 
-0.218785 0.133409 0.715885 62 76 96 
-0.214906 0.133366 0.715433 64 79 96 
-0.211026 0.133323 0.71498 63 78 93 
-0.207147 0.13328 0.714527 65 80 95 
-0.203024 0.133234 0.714046 65 80 95 
-0.199419 0.133874 0.718547 64 79 94 
-0.195265 0.133148 0.713141 63 78 91 
-0.191385 0.133105 0.712688 62 79 91 
-0.187384 0.13306 0.712221 64 81 93 
-0.183505 0.133017 0.711768 64 81 93 
-0.179503 0.132972 0.711301 55 70 87 
-0.175624 0.132929 0.710849 206 222 232 
-0.171623 0.132885 0.710382 194 210 220 
-0.167622 0.13284 0.709915 196 211 226 
-0.163717 0.132229 0.705516 197 212 227 
-0.159741 0.132753 0.708995 198 213 230 
-0.155862 0.132709 0.708542 197 212 229 
-0.15186 0.132665 0.708076 197 212 229 
-0.147981 0.132622 0.707623 199 214 231 
-0.144012 0.133257 0.712081 197 212 229 
-0.140133 0.133214 0.711629 197 212 229 
-0.135949 0.13417 0.720003 195 210 227 
-0.131948 0.134125 0.719536 212 227 244 
-0.127972 0.13465 0.723016 65 79 99 
-0.123971 0.134605 0.722549 65 79 101 
-0.119997 0.135006 0.726017 67 79 97 
-0.115997 0.134962 0.725551 69 81 99 
-0.111899 0.135484 0.729016 65 80 97 
-0.107899 0.135439 0.728549 64 79 96 
-0.103994 0.134828 0.72415 61 76 91 
-0.100087 0.134339 0.719762 63 78 93 
-0.0960856 0.134295 0.719295 64 79 94 
-0.0922062 0.134252 0.718842 62 77 92 
-0.0882056 0.134207 0.718375 56 71 86 
-0.0843007 0.133595 0.713976 155 168 179 
-0.0808466 0.132555 0.70471 201 214 225 
-0.0770555 0.131833 0.699346 198 213 226 
-0.0732728 0.131223 0.694961 199 214 231 
-0.069547 0.130736 0.690594 198 214 233 
-0.065607 0.130692 0.690134 197 213 232 
-0.0621002 0.129639 0.681839 197 213 232 
-0.0584375 0.129031 0.677478 196 212 231 
-0.0547148 0.128421 0.6731 197 213 232 
-0.0508352 0.128378 0.672647 196 212 231 
-0.0462443 0.129908 0.683931 196 212 231 
-0.0418712 0.130874 0.691296 212 227 244 
-0.0369925 0.132502 0.704511 64 76 92 
-0.0324955 0.133587 0.711874 61 73 91 
-0.027609 0.135226 0.724101 62 74 92 
-0.0225485 0.136852 0.737295 57 72 89 
-0.0175395 0.138489 0.749518 56 71 86 
-0.0124726 0.140003 0.761723 57 72 87 
-0.00841111 0.139958 0.761249 57 72 85 
-0.00462523 0.139469 0.756875 59 74 87 
-0.000957072 0.13875 0.751515 59 74 87 
0.00279854 0.138262 0.747145 56 71 84 
0.00643757 0.137542 0.741798 56 68 86 
0.0101298 0.136933 0.737424 206 218 234 
0.0132271 0.135784 0.727212 197 212 227 
0.0160393 0.13406 0.714086 189 204 219 
0.0196406 0.133453 0.709722 234 251 255 
0.0236264 0.133408 0.709257 237 255 255 
0.0276273 0.133364 0.70879 170 193 189 
0.0312011 0.132879 0.704441 207 230 226 
0.0347493 0.132271 0.700083 199 216 219 
0.0382824 0.131664 0.695727 240 254 255 
0.0422455 0.13162 0.695264 241 254 249 
0.0462066 0.131576 0.694802 247 255 254 
0.049592 0.131103 0.689488 204 222 220 
0.0535447 0.131059 0.689027 233 255 255 
0.056892 0.130342 0.683715 237 255 255 
0.0603418 0.129737 0.679368 201 210 203 
0.0642593 0.129693 0.678911 126 116 102 
0.0681996 0.129649 0.678451 146 120 105 
0.0726456 0.130167 0.681876 139 115 92 
0.0772509 0.130796 0.686261 165 140 120 
0.0811912 0.130752 0.685801 193 177 156 
0.0879953 0.13326 0.705689 207 190 174 
0.0926915 0.133887 0.710063 119 104 92 
0.102372 0.138725 0.748321 120 113 103 
-0.472536 0.13868 0.733727 114 106 92 
-0.468655 0.138637 0.733275 118 108 94 
-0.464776 0.138594 0.732822 143 124 111 
-0.460896 0.138551 0.732369 226 207 192 
-0.457017 0.138508 0.731916 217 198 181 
-0.452143 0.137885 0.727404 210 190 170 
-0.448505 0.137844 0.726979 131 104 82 
-0.443872 0.137225 0.722505 152 119 90 
-0.43975 0.13718 0.722024 152 115 85 
-0.43587 0.137136 0.721571 148 111 81 
-0.431991 0.137093 0.721118 153 114 83 
-0.42811 0.13705 0.720666 150 111 78 
-0.424231 0.137007 0.720213 149 110 77 
-0.420352 0.136964 0.71976 142 112 80 
-0.417225 0.137496 0.723329 166 159 128 
-0.413345 0.137453 0.722876 147 152 122 
-0.409466 0.13741 0.722424 141 151 124 
-0.405343 0.137364 0.721942 157 169 141 
-0.401464 0.137321 0.72149 164 176 150 
-0.397584 0.137278 0.721037 161 173 147 
-0.393193 0.136662 0.716591 162 174 148 
-0.388562 0.136042 0.712107 176 188 162 
-0.384682 0.135998 0.711654 171 183 155 
-0.380803 0.135955 0.711201 152 170 137 
-0.377675 0.136489 0.71478 169 194 159 
-0.373553 0.136443 0.714299 168 195 164 
-0.370426 0.136976 0.717868 206 220 211 
-0.366304 0.13693 0.717387 203 215 219 
-0.363688 0.137915 0.724967 207 217 231 
-0.360077 0.138442 0.72848 214 224 240 
-0.357347 0.139537 0.737025 212 222 236 
-0.353467 0.139494 0.736572 209 220 231 
-0.349742 0.140009 0.741058 208 219 230 
-0.346372 0.14054 0.744608 209 220 231 
-0.341982 0.139923 0.740152 210 221 232 
-0.337861 0.139877 0.739671 208 218 232 
-0.333583 0.139273 0.734252 208 218 232 
-0.329704 0.139229 0.733799 208 218 232 
-0.325184 0.138622 0.728351 208 218 232 
-0.321305 0.138579 0.727899 206 217 228 
-0.317425 0.138536 0.727446 192 202 216 
-0.313303 0.13849 0.726965 79 87 102 
-0.310063 0.139011 0.731507 70 75 95 
-0.305941 0.138965 0.731026 69 74 92 
-0.302061 0.138922 0.730573 61 69 86 
-0.298604 0.140009 0.739034 65 75 89 
-0.294457 0.139394 0.734606 61 71 85 
-0.290844 0.139922 0.738128 63 73 87 
-0.286455 0.139305 0.733672 66 76 92 
-0.282575 0.139262 0.73322 65 75 91 
-0.278962 0.13979 0.736742 66 76 92 
-0.274841 0.139744 0.736261 66 76 92 
-0.27096 0.139701 0.735808 154 163 175 
-0.267108 0.140104 0.7393 195 206 215 
-0.263227 0.14006 0.738848 196 207 216 
-0.259616 0.140588 0.74236 196 207 218 
-0.255494 0.140542 0.741879 196 207 218 
-0.251615 0.140499 0.741426 195 206 217 
-0.24776 0.141024 0.74492 198 210 224 
-0.243075 0.139391 0.732554 194 206 220 
-0.238929 0.138776 0.728126 197 209 223 
-0.234496 0.137613 0.717768 196 208 222 
-0.230617 0.13757 0.717316 193 205 219 
-0.226737 0.137527 0.716863 196 208 222 
-0.22259 0.136912 0.712435 90 102 120 
-0.218711 0.136869 0.711982 70 81 102 
-0.214589 0.136823 0.711501 69 83 103 
-0.210708 0.13678 0.711049 65 79 99 
-0.206829 0.136737 0.710596 70 84 104 
-0.202974 0.137263 0.71409 67 81 101 
-0.199216 0.137221 0.713651 69 83 103 
-0.195069 0.136606 0.709224 70 85 102 
-0.191042 0.135994 0.70482 72 87 104 
-0.187189 0.136518 0.708304 70 85 102 
-0.183308 0.136475 0.707851 69 84 101 
-0.179429 0.136432 0.707398 69 80 101 
-0.175428 0.136388 0.706931 207 220 231 
-0.171573 0.136913 0.710425 193 206 217 
-0.167572 0.136869 0.709958 194 207 218 
-0.163692 0.136825 0.709506 196 209 220 
-0.159691 0.136781 0.709039 196 208 222 
-0.155812 0.136738 0.708586 197 209 223 
-0.151845 0.137251 0.713043 197 209 223 
-0.147931 0.13665 0.707666 196 208 222 
-0.14393 0.136606 0.707199 196 208 222 
-0.140084 0.13712 0.711671 194 206 220 
-0.136084 0.137075 0.711204 194 209 222 
-0.131995 0.137587 0.715647 208 223 238 
-0.127994 0.137542 0.71518 63 77 97 
-0.124017 0.138066 0.71866 71 84 111 
-0.120017 0.138022 0.718193 73 84 105 
-0.116042 0.138423 0.721672 76 87 108 
-0.112042 0.138378 0.721205 72 86 106 
-0.10804 0.138334 0.720738 76 90 110 
-0.104039 0.138289 0.720271 66 82 101 
-0.10023 0.137233 0.71194 70 86 105 
-0.0962536 0.137757 0.71542 70 86 105 
-0.092253 0.137713 0.714953 64 81 95 
-0.0882524 0.137668 0.714486 57 72 87 
-0.0844687 0.137058 0.710101 163 176 187 
-0.0807982 0.13646 0.704752 200 213 222 
-0.0770056 0.135861 0.69939 197 212 225 
-0.0734386 0.134685 0.691096 194 209 224 
-0.0694986 0.134642 0.690636 196 211 226 
-0.0655586 0.134598 0.690176 194 211 225 
-0.0620518 0.133545 0.681881 195 212 226 
-0.0583891 0.132937 0.67752 194 211 227 
-0.0548827 0.131884 0.669225 195 212 228 
-0.0507868 0.132284 0.672689 197 214 230 
-0.0464122 0.133371 0.680056 194 211 227 
-0.0418213 0.134901 0.69134 210 225 242 
-0.0372727 0.135976 0.699673 62 74 92 
-0.0324471 0.137493 0.711916 64 75 96 
-0.0275591 0.139253 0.724145 63 75 93 
-0.0224986 0.140879 0.737339 62 77 94 
-0.0174896 0.142516 0.749562 62 77 92 
-0.0127576 0.143711 0.757875 62 77 92 
-0.0083597 0.144107 0.761294 60 77 91 
-0.00457382 0.14362 0.75692 62 79 93 
-0.000905663 0.142899 0.75156 60 77 91 
0.00284843 0.14229 0.747188 61 78 92 
0.00611973 0.141128 0.737943 62 77 94 
0.009812 0.14052 0.733568 203 213 229 
0.0129088 0.139248 0.723365 195 210 225 
0.0160892 0.138089 0.714129 195 212 226 
0.0196905 0.13748 0.709766 194 214 225 
0.0232778 0.136873 0.705413 190 216 214 
0.0272636 0.136829 0.704948 164 191 184 
0.0312495 0.136784 0.704483 212 239 232 
0.0347992 0.136299 0.700127 238 255 255 
0.0383323 0.135692 0.695771 212 226 228 
0.0422954 0.135647 0.695308 241 255 255 
0.0456878 0.135053 0.689992 205 217 219 
0.0490622 0.134458 0.684678 237 251 255 
0.0530016 0.134415 0.684218 189 206 211 
0.0564589 0.133808 0.679871 177 194 199 
0.0598948 0.133202 0.675536 218 226 227 
0.0638199 0.133158 0.675078 131 120 111 
0.067745 0.133115 0.67462 143 118 100 
0.071655 0.133071 0.674164 146 119 97 
0.076115 0.133589 0.677577 153 128 108 
0.080025 0.133546 0.677121 192 176 155 
0.0858736 0.135163 0.690223 203 186 168 
0.0927414 0.137915 0.710106 128 114 99 
0.0979026 0.138871 0.71738 124 116 104 
-0.471492 0.142006 0.72971 117 109 97 
-0.467613 0.141963 0.729257 115 100 88 
-0.463733 0.14192 0.728804 201 182 167 
-0.459853 0.141877 0.728351 217 198 183 
-0.455974 0.141834 0.727899 229 212 194 
-0.452094 0.14179 0.727446 145 127 105 
-0.448456 0.14175 0.727021 148 115 88 
-0.443824 0.141131 0.722547 151 117 86 
-0.439701 0.141085 0.722066 155 118 88 
-0.435822 0.141042 0.721613 148 111 79 
-0.431942 0.140999 0.721161 148 111 79 
-0.428062 0.140956 0.720708 148 109 78 
-0.424183 0.140912 0.720255 149 112 80 
-0.420303 0.140869 0.719802 132 106 75 
-0.417176 0.141402 0.723371 171 168 136 
-0.413297 0.141359 0.722919 169 177 146 
-0.409417 0.141316 0.722466 152 160 131 
-0.405295 0.14127 0.721985 149 156 130 
-0.400905 0.140653 0.717539 152 159 133 
-0.397025 0.14061 0.717086 176 186 159 
-0.393145 0.140567 0.716633 157 169 141 
-0.388512 0.14007 0.71215 141 153 127 
-0.384632 0.140027 0.711697 146 158 132 
-0.380753 0.139984 0.711245 170 188 155 
-0.376872 0.139941 0.710792 167 195 159 
-0.373505 0.140349 0.714341 167 189 162 
-0.369624 0.140305 0.713888 206 219 214 
-0.366256 0.140835 0.717429 203 215 221 
-0.362886 0.141366 0.720979 174 184 200 
-0.360028 0.142347 0.728522 82 82 104 
-0.356658 0.142878 0.732072 77 77 97 
-0.353417 0.143521 0.736616 72 72 92 
-0.349537 0.143478 0.736163 71 71 89 
-0.345813 0.143994 0.740649 74 71 90 
-0.341536 0.143389 0.735229 73 70 89 
-0.337656 0.143346 0.734776 73 70 89 
-0.333138 0.142617 0.729327 72 69 88 
-0.329015 0.142571 0.728846 70 70 88 
-0.324626 0.141954 0.72439 72 72 92 
-0.320746 0.14191 0.723938 75 75 93 
-0.316867 0.141867 0.723485 161 170 180 
-0.312987 0.141824 0.723032 207 218 229 
-0.309107 0.141781 0.722579 209 220 231 
-0.304985 0.141735 0.722098 207 217 231 
-0.301615 0.142266 0.725649 206 218 232 
-0.297493 0.14222 0.725168 203 218 231 
-0.294009 0.14286 0.729683 203 218 231 
-0.29013 0.142817 0.72923 204 219 232 
-0.28625 0.142774 0.728778 203 218 231 
-0.282127 0.142728 0.728297 203 218 231 
-0.278248 0.142685 0.727844 203 218 231 
-0.274369 0.142642 0.727391 203 218 231 
-0.270644 0.143158 0.731877 114 126 142 
-0.266522 0.143112 0.731396 86 91 109 
-0.262641 0.143069 0.730943 84 84 102 
-0.25903 0.143596 0.734465 81 81 99 
-0.254907 0.14355 0.733984 83 80 99 
-0.251028 0.143507 0.733531 81 81 99 
-0.246906 0.143461 0.73305 82 82 100 
-0.242759 0.142848 0.728622 84 84 102 
-0.238571 0.141565 0.718292 82 82 100 
-0.234448 0.141519 0.717811 82 82 100 
-0.230302 0.140904 0.713383 85 85 103 
-0.226421 0.140861 0.71293 201 202 215 
-0.222272 0.140369 0.708514 115 127 141 
-0.218393 0.140326 0.708061 102 119 135 
-0.214512 0.140283 0.707608 99 118 136 
-0.210633 0.14024 0.707156 97 116 134 
-0.206754 0.140197 0.706703 101 120 140 
-0.202901 0.140599 0.710186 94 113 133 
-0.199022 0.140556 0.709733 97 116 136 
-0.19502 0.140512 0.709266 94 113 131 
-0.190992 0.140021 0.704864 95 114 132 
-0.187112 0.139978 0.704411 94 113 131 
-0.18326 0.140381 0.707893 92 111 129 
-0.17938 0.140338 0.707441 92 111 129 
-0.17538 0.140293 0.706974 201 212 223 
-0.1715 0.14025 0.706521 203 213 220 
-0.167499 0.140205 0.706054 202 212 219 
-0.163619 0.140162 0.705601 204 211 219 
-0.159619 0.140118 0.705135 205 212 220 
-0.155764 0.140643 0.708628 204 211 219 
-0.151762 0.140599 0.708161 205 211 222 
-0.147883 0.140556 0.707709 205 212 220 
-0.143882 0.140511 0.707242 205 212 220 
-0.140003 0.140468 0.706789 205 212 220 
-0.136001 0.140423 0.706322 206 213 221 
-0.132032 0.141058 0.710781 200 209 219 
-0.128153 0.141015 0.710328 85 100 115 
-0.124152 0.14097 0.709861 75 90 114 
-0.120064 0.141483 0.714304 76 92 113 
-0.116062 0.141438 0.713837 81 97 116 
-0.112183 0.141395 0.713385 82 98 117 
-0.108085 0.141917 0.71685 76 92 113 
-0.104181 0.141306 0.712451 73 92 112 
-0.10051 0.140707 0.707102 73 91 114 
-0.0963004 0.141218 0.711531 74 93 113 
-0.0922998 0.141174 0.711064 75 91 112 
-0.0882982 0.141129 0.710597 75 89 109 
-0.0846278 0.140531 0.705249 156 168 184 
-0.0808367 0.13981 0.699885 197 210 219 
-0.0771145 0.1392 0.695506 194 210 218 
-0.0733887 0.138713 0.69114 194 210 220 
-0.069606 0.138103 0.686754 194 210 220 
-0.0657266 0.13806 0.686302 194 210 220 
-0.0622201 0.136885 0.678015 195 210 223 
-0.0584965 0.136398 0.673638 194 209 222 
-0.0548343 0.135789 0.669267 194 209 222 
-0.0509546 0.135746 0.668815 192 207 220 
-0.046641 0.136712 0.676197 191 208 220 
-0.0419881 0.138363 0.687475 209 224 239 
-0.0375543 0.139328 0.694834 62 77 94 
-0.0326134 0.141077 0.708043 73 83 101 
-0.0278407 0.142606 0.719305 66 75 96 
-0.0228936 0.144243 0.731526 71 83 101 
-0.0181087 0.145427 0.740819 67 79 97 
-0.0131025 0.146942 0.753031 62 74 92 
-0.00898033 0.146896 0.75255 69 84 101 
-0.00525504 0.146408 0.748183 64 79 96 
-0.00158572 0.145688 0.742833 67 84 100 
0.00213835 0.145201 0.738456 69 86 102 
0.00583059 0.144592 0.734082 67 78 99 
0.00895932 0.143443 0.723876 200 212 230 
0.012591 0.142835 0.719509 197 209 225 
0.0157698 0.141553 0.710273 196 211 226 
0.0193571 0.140944 0.70592 184 205 213 
0.0229448 0.140459 0.701559 177 202 197 
0.0273135 0.140856 0.704992 171 198 191 
0.030886 0.140371 0.700633 205 232 225 
0.0344192 0.139764 0.696277 216 240 240 
0.0378325 0.139168 0.690958 240 255 255 
0.0417879 0.139124 0.690496 218 233 232 
0.0451713 0.138408 0.68518 242 254 255 
0.0486456 0.137801 0.680831 204 218 222 
0.0521057 0.137317 0.676495 208 227 229 
0.0555441 0.136711 0.67215 232 251 253 
0.0594541 0.136667 0.671694 200 213 212 
0.0628584 0.136061 0.667352 125 114 105 
0.0672741 0.13658 0.670781 148 120 103 
0.071184 0.136537 0.670325 149 120 99 
0.075094 0.136493 0.669868 150 127 108 
0.0795552 0.137011 0.673291 193 177 154 
0.0840137 0.137407 0.676703 204 188 167 
0.0892004 0.138597 0.684963 142 125 109 
0.0968225 0.141897 0.709679 123 115 101 
-0.604017 0.229348 1.35093 114 104 92 
-0.598683 0.229289 1.35031 116 106 94 
-0.593347 0.229229 1.34968 117 107 95 
-0.470933 0.145338 0.725759 120 110 98 
-0.467053 0.145295 0.725306 115 97 86 
-0.463174 0.145252 0.724853 223 204 189 
-0.459805 0.145783 0.728394 216 197 180 
-0.455925 0.14574 0.727941 224 206 186 
-0.451535 0.145123 0.723495 126 104 78 
-0.447655 0.14508 0.723042 151 116 88 
-0.443776 0.145036 0.722589 152 115 85 
-0.439653 0.14499 0.722108 152 113 82 
-0.435773 0.144947 0.721656 152 113 82 
-0.431894 0.144904 0.721203 150 111 80 
-0.428014 0.144861 0.72075 151 114 82 
-0.424134 0.144818 0.720297 145 111 78 
-0.420255 0.144775 0.719845 131 112 83 
-0.417128 0.145308 0.723413 157 158 129 
-0.412495 0.144688 0.718939 150 158 129 
-0.408615 0.144645 0.718486 168 178 151 
-0.404736 0.144602 0.718034 156 166 139 
-0.400857 0.144559 0.717581 162 172 145 
-0.396976 0.144516 0.717128 175 187 159 
-0.392343 0.144019 0.712645 155 170 141 
-0.388463 0.143976 0.712192 160 172 146 
-0.384074 0.143359 0.707736 138 153 124 
-0.380194 0.143316 0.707284 185 205 172 
-0.376824 0.143846 0.710834 170 195 160 
-0.372945 0.143803 0.710381 170 188 165 
-0.369576 0.144211 0.713931 204 219 216 
-0.365696 0.144168 0.713478 207 219 233 
-0.362837 0.145272 0.721022 121 131 147 
-0.359467 0.145802 0.724572 61 69 88 
-0.356099 0.146333 0.728113 66 71 89 
-0.352729 0.146863 0.731663 62 67 83 
-0.348849 0.14682 0.73121 61 64 81 
-0.345365 0.147461 0.735726 57 61 75 
-0.340847 0.14673 0.730276 56 60 74 
-0.336968 0.146687 0.729824 58 62 74 
-0.333088 0.146644 0.729371 56 60 72 
-0.328699 0.146028 0.724915 50 54 66 
-0.324308 0.145411 0.720469 57 61 73 
-0.320428 0.145367 0.720016 51 52 67 
-0.316306 0.145322 0.719535 196 202 213 
-0.312426 0.145278 0.719082 199 210 219 
-0.308547 0.145235 0.71863 199 210 221 
-0.304667 0.145192 0.718177 201 211 225 
-0.300787 0.145149 0.717724 200 210 224 
-0.297176 0.145677 0.721237 200 212 226 
-0.293296 0.145634 0.720784 199 211 225 
-0.289417 0.145591 0.720331 200 212 226 
-0.285295 0.145545 0.71985 200 212 228 
-0.281414 0.145502 0.719397 198 210 226 
-0.277803 0.146029 0.722919 197 212 225 
-0.273922 0.145986 0.722466 197 212 225 
-0.270043 0.145943 0.722014 82 99 113 
-0.266316 0.146581 0.726501 57 69 87 
-0.262041 0.145854 0.72108 53 63 79 
-0.258558 0.146495 0.725595 55 63 78 
-0.254435 0.146449 0.725114 54 62 77 
-0.250555 0.146406 0.724661 57 62 78 
-0.246676 0.146363 0.724209 57 62 80 
-0.2424 0.145635 0.718788 53 58 76 
-0.238253 0.145022 0.71436 49 54 72 
-0.234105 0.144407 0.709943 56 61 79 
-0.230225 0.144364 0.70949 57 62 78 
-0.226103 0.144318 0.709009 50 53 70 
-0.222199 0.143707 0.70461 213 222 232 
-0.218077 0.143661 0.704129 201 214 225 
-0.214197 0.143618 0.703676 205 221 231 
-0.210585 0.144145 0.707198 201 218 230 
-0.206705 0.144102 0.706745 201 218 230 
-0.202851 0.144628 0.710229 201 218 232 
-0.198824 0.144014 0.705825 201 218 232 
-0.194823 0.14397 0.705359 202 219 233 
-0.190944 0.143927 0.704906 204 221 235 
-0.187064 0.143884 0.704453 201 218 232 
-0.183063 0.143839 0.703986 203 220 234 
-0.17933 0.144366 0.707484 207 224 238 
-0.17533 0.144322 0.707017 69 81 99 
-0.17145 0.144278 0.706565 62 70 89 
-0.167449 0.144234 0.706098 59 64 82 
-0.163569 0.144191 0.705645 57 60 79 
-0.159593 0.144714 0.709125 56 59 78 
-0.155714 0.144671 0.708672 56 59 78 
-0.151745 0.145306 0.713131 54 57 76 
-0.147833 0.144583 0.707752 57 60 79 
-0.143832 0.144539 0.707285 55 58 75 
-0.139927 0.143928 0.702886 57 60 77 
-0.136048 0.143885 0.702433 60 63 80 
-0.132047 0.14384 0.701966 84 84 102 
-0.128168 0.143797 0.701514 209 218 230 
-0.124191 0.14432 0.704993 204 219 232 
-0.12019 0.144276 0.704526 204 221 233 
-0.116311 0.144232 0.704074 203 220 232 
-0.11231 0.144188 0.703607 205 222 234 
-0.108341 0.144824 0.708066 202 219 231 
-0.104429 0.1441 0.702687 205 222 236 
-0.100549 0.144057 0.702234 205 222 236 
-0.0965479 0.144012 0.701767 207 224 238 
-0.0924579 0.144647 0.706212 207 224 238 
-0.0885785 0.144604 0.705759 204 221 233 
-0.0847884 0.143882 0.700395 142 159 171 
-0.0810047 0.143272 0.69601 69 83 103 
-0.0772208 0.142661 0.691635 65 73 99 
-0.0734976 0.142053 0.687256 64 73 96 
-0.0697755 0.141444 0.682878 61 70 93 
-0.0658355 0.1414 0.682419 64 73 94 
-0.0621718 0.140791 0.678057 64 73 94 
-0.058666 0.139739 0.669762 65 74 95 
-0.0547859 0.139696 0.669309 69 78 99 
-0.0509062 0.139653 0.668857 69 80 101 
-0.0465926 0.140617 0.676239 79 90 111 
-0.042218 0.141705 0.683606 95 109 129 
-0.0377827 0.142791 0.690966 190 205 220 
-0.0328434 0.144418 0.704174 198 215 227 
-0.0280692 0.146069 0.715438 193 210 222 
-0.0234598 0.147143 0.723764 189 209 222 
-0.0183372 0.14889 0.736952 184 204 217 
-0.013719 0.149973 0.7443 180 200 213 
-0.00965738 0.149928 0.743826 173 193 208 
-0.00593635 0.149197 0.739447 170 189 207 
-0.0022122 0.14871 0.73507 165 184 202 
0.00128308 0.148002 0.728754 158 179 196 
0.00497802 0.147516 0.72439 75 93 116 
0.0081856 0.146111 0.715149 184 200 219 
0.0118188 0.145625 0.710783 195 210 227 
0.015052 0.144453 0.702528 194 209 226 
0.0190075 0.144409 0.702067 182 203 209 
0.0225937 0.143802 0.697704 174 197 191 
0.0269638 0.14432 0.701138 169 194 187 
0.0305046 0.143714 0.696781 201 226 219 
0.0339345 0.143241 0.691462 193 215 216 
0.0378824 0.143197 0.691002 230 247 248 
0.0412827 0.142479 0.685683 234 248 250 
0.0447666 0.141873 0.681333 194 208 210 
0.0482327 0.141266 0.676995 212 231 231 
0.0516787 0.14066 0.672649 205 224 224 
0.0551095 0.140054 0.668305 240 255 255 
0.0590119 0.140011 0.667849 222 237 232 
0.0624023 0.139405 0.66352 124 118 103 
0.0662971 0.139361 0.663065 144 119 101 
0.0707116 0.139881 0.666484 151 119 97 
0.0746216 0.139837 0.666028 144 117 95 
0.0785013 0.139794 0.665575 195 177 155 
0.0835136 0.140873 0.672877 201 183 161 
0.0868724 0.140268 0.668542 144 127 111 
0.0913639 0.140786 0.671961 123 115 101 
-0.598182 0.230578 1.32076 114 104 92 
-0.592848 0.230519 1.32014 114 104 92 
-0.587998 0.230465 1.31957 117 109 97 
-0.470883 0.149367 0.725802 120 110 96 
-0.467003 0.149324 0.72535 132 115 101 
-0.463124 0.149281 0.724897 225 206 189 
-0.459244 0.149237 0.724444 217 199 179 
-0.455364 0.149194 0.723991 218 198 176 
-0.451485 0.149151 0.723539 124 97 73 
-0.448359 0.149562 0.727106 149 114 86 
-0.444238 0.149516 0.726625 152 115 83 
-0.439603 0.149019 0.722152 154 117 85 
-0.435724 0.148976 0.721699 152 113 80 
-0.431844 0.148933 0.721247 155 116 83 
-0.427964 0.148889 0.720794 152 113 80 
-0.424084 0.148846 0.720341 143 109 76 
-0.420205 0.148803 0.719888 161 146 116 
-0.416325 0.14876 0.719436 154 160 127 
-0.412445 0.148717 0.718983 148 159 129 
-0.408566 0.148674 0.71853 142 152 125 
-0.404686 0.14863 0.718077 154 166 138 
-0.400807 0.148587 0.717625 136 151 122 
-0.396175 0.147967 0.71314 142 157 130 
-0.392294 0.147924 0.712687 150 165 136 
-0.387906 0.147308 0.708232 153 168 139 
-0.384025 0.147265 0.707779 129 144 115 
-0.380146 0.147222 0.707326 185 205 172 
-0.376266 0.147178 0.706873 175 199 167 
-0.372896 0.147708 0.710424 185 205 188 
-0.369017 0.147665 0.709971 203 217 219 
-0.365646 0.148196 0.713521 213 226 237 
-0.36228 0.148604 0.717061 86 96 112 
-0.35891 0.149134 0.720611 65 73 92 
-0.355539 0.149665 0.724162 62 70 87 
-0.35217 0.150195 0.727702 57 65 80 
-0.348291 0.150152 0.727249 55 63 78 
-0.34468 0.150557 0.73077 52 60 75 
-0.340289 0.150063 0.726316 53 62 74 
-0.336409 0.15002 0.725863 50 59 71 
-0.33253 0.149977 0.72541 50 59 69 
-0.328139 0.14936 0.720964 50 60 67 
-0.324259 0.149317 0.720511 57 63 74 
-0.31987 0.1487 0.716055 48 52 66 
-0.31599 0.148657 0.715603 208 214 227 
-0.311601 0.14804 0.711147 200 209 219 
-0.307721 0.147997 0.710694 203 212 224 
-0.303842 0.147954 0.710241 203 213 227 
-0.299962 0.147911 0.709788 203 213 227 
-0.29635 0.148438 0.713311 202 212 226 
-0.29247 0.148395 0.712858 202 212 226 
-0.28859 0.148352 0.712405 202 212 226 
-0.284711 0.148309 0.711952 202 212 226 
-0.280831 0.148265 0.7115 200 212 226 
-0.277219 0.148794 0.715022 196 211 224 
-0.272829 0.148176 0.710566 210 225 238 
-0.269216 0.148705 0.714088 70 85 102 
-0.265337 0.148661 0.713635 62 74 90 
-0.261458 0.148618 0.713182 57 69 85 
-0.257846 0.149146 0.716695 54 66 82 
-0.253967 0.149102 0.716242 52 64 78 
-0.249576 0.148486 0.711796 51 61 75 
-0.245964 0.149013 0.715308 52 62 76 
-0.241816 0.1484 0.71089 50 60 74 
-0.23767 0.147785 0.706463 52 62 76 
-0.233789 0.147742 0.70601 51 61 75 
-0.22991 0.147699 0.705557 54 62 77 
-0.225763 0.147085 0.70113 61 65 77 
-0.222151 0.147613 0.704652 211 218 224 
-0.218004 0.146999 0.700224 196 208 214 
-0.214149 0.147524 0.703718 199 210 221 
-0.210269 0.14748 0.703265 198 211 222 
-0.206657 0.148009 0.706787 195 210 223 
-0.202534 0.147963 0.706306 197 212 225 
-0.198776 0.147921 0.705868 197 212 225 
-0.194775 0.147876 0.705401 196 211 226 
-0.190749 0.147263 0.700987 195 210 225 
-0.18687 0.14722 0.700535 194 211 225 
-0.183015 0.147746 0.704028 194 211 225 
-0.179135 0.147702 0.703576 202 219 233 
-0.175256 0.147659 0.703123 57 71 91 
-0.171254 0.147615 0.702656 62 74 92 
-0.1674 0.148139 0.70614 60 70 86 
-0.163521 0.148096 0.705687 61 71 87 
-0.159546 0.148497 0.709166 60 68 85 
-0.155667 0.148454 0.708713 58 66 83 
-0.151698 0.14909 0.713171 59 67 84 
-0.147786 0.148367 0.707793 52 60 75 
-0.14388 0.147878 0.703395 60 68 83 
-0.139879 0.147833 0.702928 57 65 80 
-0.135974 0.147222 0.698539 62 70 85 
-0.132094 0.147179 0.698086 72 75 92 
-0.128093 0.147135 0.697619 207 216 228 
-0.124213 0.147091 0.697166 195 211 221 
-0.120334 0.147048 0.696714 195 210 223 
-0.116332 0.147004 0.696247 195 212 224 
-0.112453 0.146961 0.695794 194 211 225 
-0.108478 0.147484 0.699264 194 211 225 
-0.104573 0.146873 0.694875 196 213 227 
-0.100692 0.14683 0.694422 196 213 227 
-0.0967174 0.147353 0.697891 194 211 227 
-0.0927168 0.147308 0.697425 195 212 228 
-0.0888373 0.147265 0.696972 201 218 232 
-0.0848357 0.147221 0.696505 129 146 160 
-0.0810518 0.146611 0.69213 59 73 93 
-0.0773297 0.146001 0.687752 59 68 91 
-0.0736065 0.145392 0.683373 60 69 92 
-0.0697271 0.145349 0.682921 58 65 87 
-0.0657871 0.145305 0.682461 60 68 87 
-0.0622792 0.144253 0.674176 56 66 82 
-0.0586176 0.143644 0.669805 52 64 80 
-0.0550675 0.143048 0.66447 52 64 80 
-0.0508578 0.143558 0.668899 55 67 83 
-0.0467604 0.14408 0.672364 56 68 86 
-0.0423873 0.145045 0.67973 56 68 86 
-0.037951 0.146132 0.6871 208 223 238 
-0.0331857 0.147771 0.699341 193 210 224 
-0.0285764 0.148844 0.707668 193 210 224 
-0.0240199 0.14993 0.715013 194 211 227 
-0.0194075 0.151248 0.723342 195 211 230 
-0.0147905 0.152332 0.73068 193 210 226 
-0.0107289 0.152287 0.730206 193 210 226 
-0.00672799 0.152242 0.72974 193 210 226 
-0.0030058 0.151511 0.72537 192 212 227 
0.000657678 0.151024 0.721 191 211 226 
0.00389564 0.149619 0.711756 193 212 230 
0.00786626 0.149575 0.711292 193 212 230 
0.0111298 0.148403 0.703034 194 210 229 
0.0147326 0.147917 0.698671 195 209 229 
0.0181747 0.1472 0.693348 186 204 213 
0.0221301 0.147156 0.692886 183 211 198 
0.0260855 0.147112 0.692425 202 232 224 
0.0300259 0.147068 0.691965 191 221 213 
0.0334452 0.14635 0.686644 243 255 255 
0.0369571 0.145866 0.682292 243 255 255 
0.0408823 0.145822 0.681834 235 252 253 
0.0443597 0.145216 0.677494 240 255 255 
0.0478161 0.144609 0.673147 237 255 255 
0.0517271 0.144565 0.672691 241 255 255 
0.0546777 0.14352 0.664471 184 201 202 
0.0585649 0.143476 0.664017 223 237 228 
0.0619616 0.14287 0.659677 121 117 106 
0.0658413 0.142827 0.659224 144 121 102 
0.0702419 0.143347 0.662655 150 118 96 
0.0741367 0.143303 0.6622 139 112 90 
0.0780315 0.14326 0.661745 195 176 151 
0.0824597 0.143656 0.665161 200 180 158 
0.0863697 0.143613 0.664705 153 136 120 
0.0908308 0.14413 0.668128 124 116 102 
-0.611898 0.245611 1.39137 114 104 92 
-0.606564 0.245552 1.39075 118 108 96 
-0.482499 0.159181 0.768567 119 111 99 
-0.478619 0.159137 0.768115 121 108 95 
-0.474739 0.159094 0.767662 173 154 139 
-0.463077 0.153064 0.724938 222 204 184 
-0.459197 0.153021 0.724485 216 198 178 
-0.455317 0.152978 0.724032 184 161 140 
-0.451438 0.152935 0.72358 139 108 81 
-0.44831 0.153589 0.72715 153 116 86 
-0.444188 0.153543 0.726669 149 110 77 
-0.439556 0.152802 0.722193 152 113 80 
-0.435677 0.152759 0.72174 154 116 80 
-0.432548 0.153414 0.72531 153 115 79 
-0.427917 0.152673 0.720835 153 115 79 
-0.424037 0.15263 0.720382 141 111 79 
-0.420158 0.152587 0.719929 175 165 135 
-0.416279 0.152543 0.719476 156 161 126 
-0.412398 0.1525 0.719024 160 168 137 
-0.408519 0.152457 0.718571 151 162 132 
-0.404639 0.152414 0.718118 156 166 139 
-0.400006 0.151917 0.713635 146 157 127 
-0.396126 0.151874 0.713182 156 169 138 
-0.391738 0.151135 0.708725 160 176 144 
-0.387859 0.151091 0.708273 152 169 139 
-0.383978 0.151048 0.70782 143 162 132 
-0.379701 0.150566 0.702402 179 204 169 
-0.37622 0.150962 0.706914 177 200 175 
-0.37234 0.150919 0.706462 200 215 210 
-0.368968 0.151572 0.710013 203 215 217 
-0.365089 0.151529 0.709561 217 228 239 
-0.36172 0.151936 0.71311 65 75 91 
-0.35835 0.152588 0.716651 69 77 94 
-0.354982 0.152997 0.720201 64 72 87 
-0.35161 0.153649 0.723752 57 68 79 
-0.34773 0.153606 0.7233 52 63 74 
-0.34385 0.153563 0.722847 53 64 75 
-0.339728 0.153517 0.722366 52 63 74 
-0.335849 0.153474 0.721913 50 61 70 
-0.331969 0.153431 0.72146 50 60 67 
-0.327581 0.152693 0.717003 51 61 68 
-0.32319 0.152197 0.712548 55 62 70 
-0.319311 0.152154 0.712096 56 58 68 
-0.31543 0.152111 0.711643 217 223 234 
-0.311551 0.152068 0.71119 200 209 219 
-0.307162 0.151329 0.706743 202 211 223 
-0.303282 0.151286 0.70629 202 213 224 
-0.299403 0.151243 0.705837 202 212 226 
-0.296032 0.151895 0.709379 201 211 225 
-0.291643 0.151157 0.704932 202 212 226 
-0.287764 0.151114 0.704479 203 213 229 
-0.283884 0.15107 0.704026 201 211 227 
-0.280005 0.151027 0.703574 202 212 230 
-0.276392 0.151677 0.707087 196 211 224 
-0.272511 0.151633 0.706634 210 225 238 
-0.268632 0.15159 0.706182 66 78 94 
-0.264752 0.151547 0.705729 65 77 93 
-0.260606 0.150811 0.70131 56 68 84 
-0.256994 0.151461 0.704823 50 62 76 
-0.253113 0.151418 0.704371 51 63 77 
-0.248967 0.150682 0.699952 48 60 74 
-0.245087 0.150639 0.699499 47 59 73 
-0.240939 0.150147 0.695073 50 63 74 
-0.237059 0.150104 0.69462 48 61 72 
-0.233205 0.150507 0.698112 48 61 72 
-0.2293 0.150018 0.693714 50 56 69 
-0.225446 0.15042 0.697207 71 76 85 
-0.221567 0.150377 0.696754 212 219 225 
-0.217686 0.150334 0.696301 198 209 218 
-0.214074 0.150983 0.699815 199 210 221 
-0.210221 0.151387 0.703308 198 210 224 
-0.206341 0.151344 0.702855 199 211 225 
-0.202484 0.15199 0.70635 198 210 226 
-0.198726 0.151948 0.705911 197 212 227 
-0.194702 0.151214 0.701497 197 212 227 
-0.190701 0.15117 0.70103 197 212 227 
-0.186821 0.151126 0.700577 195 210 225 
-0.182942 0.151083 0.700124 194 211 225 
-0.179085 0.15173 0.703619 208 225 239 
-0.175206 0.151687 0.703167 59 73 93 
-0.171354 0.152089 0.706649 61 76 93 
-0.167352 0.152045 0.706182 59 71 87 
-0.163473 0.152002 0.705729 55 67 83 
-0.159495 0.152648 0.70921 55 67 81 
-0.155647 0.153284 0.713683 52 65 76 
-0.151647 0.153239 0.713216 52 63 74 
-0.147711 0.151826 0.70389 53 64 75 
-0.143832 0.151783 0.703437 53 64 75 
-0.13983 0.151739 0.702971 54 65 76 
-0.135924 0.15125 0.698582 53 64 75 
-0.13202 0.150517 0.694182 81 87 100 
-0.128141 0.150474 0.693729 206 215 225 
-0.124236 0.149984 0.689331 195 210 223 
-0.120355 0.149941 0.688878 194 209 222 
-0.116476 0.149897 0.688425 196 211 226 
-0.112501 0.1503 0.691904 195 210 225 
-0.108622 0.150256 0.691451 195 212 228 
-0.104715 0.149767 0.687053 195 212 228 
-0.100741 0.150169 0.690531 196 213 229 
-0.0968612 0.150126 0.690079 195 212 228 
-0.0927624 0.150769 0.693546 195 212 228 
-0.088883 0.150726 0.693093 201 218 234 
-0.0851008 0.149995 0.688706 127 144 160 
-0.0812213 0.149952 0.688254 55 69 89 
-0.0774967 0.149464 0.683877 55 67 85 
-0.0737143 0.148732 0.6795 56 66 82 
-0.0698348 0.148689 0.679047 56 66 80 
-0.0659544 0.148646 0.678595 52 62 76 
-0.0622308 0.148159 0.674218 51 63 77 
-0.0585707 0.147428 0.669845 50 62 76 
-0.0550191 0.146953 0.664512 52 64 78 
-0.050811 0.147341 0.66894 54 66 80 
-0.046712 0.147986 0.672407 54 66 80 
-0.0423374 0.149073 0.679774 54 66 82 
-0.0381809 0.149473 0.683231 208 223 238 
-0.0334658 0.151246 0.694503 195 210 225 
-0.0288048 0.152307 0.7038 195 212 228 
-0.0242472 0.153393 0.711155 194 211 227 
-0.0199676 0.154035 0.714591 195 211 230 
-0.0156898 0.154433 0.718034 194 210 229 
-0.0112967 0.155063 0.722443 194 210 231 
-0.00771822 0.154345 0.717104 194 210 231 
-0.00405475 0.153857 0.712734 194 210 231 
-0.000393242 0.153127 0.708372 196 212 233 
0.00323994 0.152641 0.704006 194 210 231 
0.00683978 0.151911 0.69964 195 211 232 
0.0103303 0.151437 0.694314 195 211 232 
0.0138178 0.15072 0.688985 196 212 233 
0.017743 0.150676 0.688527 195 212 226 
0.0212822 0.149946 0.684169 199 226 217 
0.0256236 0.150588 0.687608 198 225 216 
0.0291476 0.149859 0.683251 210 233 229 
0.0330728 0.149815 0.682793 230 249 249 
0.0365707 0.149331 0.678453 197 214 217 
0.0404883 0.149287 0.677996 239 255 255 
0.0439536 0.148559 0.673646 190 207 208 
0.047402 0.148074 0.669301 207 229 230 
0.0513054 0.148031 0.668846 228 250 249 
0.0547245 0.147303 0.664512 191 204 201 
0.0581228 0.14682 0.660173 226 233 225 
0.06201 0.146777 0.659719 118 111 101 
0.0658897 0.146734 0.659266 143 119 103 
0.0697694 0.14669 0.658814 144 115 90 
0.0736642 0.146647 0.658359 135 106 83 
0.0775287 0.146604 0.657908 204 182 158 
0.081958 0.147 0.661334 201 179 155 
0.0858681 0.146957 0.660877 117 98 81 
0.0903295 0.147597 0.664292 125 115 101 
-0.611145 0.246432 1.35983 119 109 97 
-0.60581 0.246373 1.35921 118 108 96 
-0.600476 0.246313 1.35859 117 109 95 
-0.477678 0.159403 0.742444 117 109 95 
-0.473799 0.15936 0.741992 112 97 85 
-0.469919 0.159317 0.741539 211 194 178 
-0.463029 0.15697 0.72498 216 197 180 
-0.459148 0.156926 0.724527 216 198 178 
-0.455269 0.156883 0.724074 146 122 99 
-0.451389 0.15684 0.723622 151 116 88 
-0.448261 0.157496 0.727192 152 115 81 
-0.444139 0.15745 0.726711 149 110 77 
-0.44026 0.157407 0.726258 153 114 81 
-0.43638 0.157364 0.725805 152 113 80 
-0.4325 0.15732 0.725353 153 114 81 
-0.428621 0.157277 0.7249 149 112 78 
-0.423989 0.156535 0.720424 135 108 75 
-0.42011 0.156492 0.719971 169 165 129 
-0.41623 0.156449 0.719519 147 153 118 
-0.41235 0.156406 0.719066 145 154 120 
-0.40847 0.156363 0.718613 144 152 121 
-0.403837 0.155866 0.71413 154 165 133 
-0.399957 0.155822 0.713678 161 172 140 
-0.395569 0.155083 0.70922 152 165 132 
-0.39169 0.15504 0.708768 174 187 156 
-0.387811 0.154997 0.708315 174 191 161 
-0.383532 0.154514 0.702897 155 174 144 
-0.379652 0.154471 0.702444 175 197 166 
-0.375772 0.154428 0.701991 184 204 185 
-0.372292 0.154824 0.706504 201 216 211 
-0.368411 0.154781 0.706051 201 215 221 
-0.365041 0.155434 0.709603 203 215 229 
-0.36116 0.155391 0.70915 61 71 87 
-0.357792 0.155799 0.712699 66 74 91 
-0.353912 0.155756 0.712246 61 69 84 
-0.350542 0.156409 0.715788 57 68 79 
-0.346663 0.156365 0.715336 53 64 75 
-0.342782 0.156322 0.714883 52 63 74 
-0.338903 0.156279 0.71443 52 63 74 
-0.335023 0.156236 0.713977 53 62 72 
-0.331144 0.156193 0.713525 50 60 67 
-0.327021 0.156147 0.713043 51 61 68 
-0.322874 0.15541 0.708624 53 57 69 
-0.318995 0.155367 0.708172 65 67 77 
-0.315116 0.155324 0.707719 216 223 231 
-0.311236 0.155281 0.707266 202 211 221 
-0.306845 0.154786 0.702811 203 212 224 
-0.302966 0.154743 0.702359 202 212 226 
-0.299085 0.1547 0.701906 203 213 227 
-0.295206 0.154657 0.701453 203 213 229 
-0.29106 0.15392 0.697024 201 211 227 
-0.287181 0.153877 0.696572 203 213 229 
-0.283566 0.154527 0.700095 205 215 231 
-0.279687 0.154484 0.699642 203 213 231 
-0.276076 0.15489 0.703163 196 211 226 
-0.271928 0.154398 0.698737 210 225 240 
-0.268048 0.154355 0.698284 61 76 91 
-0.264168 0.154312 0.697831 57 69 85 
-0.260289 0.154269 0.697379 54 66 80 
-0.256409 0.154225 0.696926 52 64 78 
-0.252264 0.153489 0.692497 50 62 76 
-0.248384 0.153446 0.692044 50 63 74 
-0.244348 0.152966 0.686654 49 62 73 
-0.240202 0.15223 0.682225 50 63 74 
-0.236589 0.15288 0.685749 48 61 72 
-0.232708 0.152836 0.685296 48 61 72 
-0.228985 0.15323 0.68978 57 62 78 
-0.225106 0.153187 0.689328 83 89 100 
-0.221492 0.153837 0.692851 209 219 226 
-0.217612 0.153794 0.692398 196 207 218 
-0.213759 0.154196 0.695891 200 210 224 
-0.210146 0.154847 0.699404 198 210 226 
-0.206024 0.154801 0.698923 198 210 226 
-0.202266 0.154759 0.698485 198 210 226 
-0.198386 0.154716 0.698032 200 212 228 
-0.194506 0.154673 0.697579 196 211 226 
-0.190481 0.153937 0.693174 196 211 226 
-0.186601 0.153894 0.692722 196 211 226 
-0.182745 0.154542 0.696207 196 211 226 
-0.179014 0.154946 0.699714 210 227 241 
-0.175157 0.155592 0.703209 63 78 93 
-0.171156 0.155548 0.702742 59 71 87 
-0.167304 0.15595 0.706224 56 68 82 
-0.163447 0.156598 0.70972 54 66 80 
-0.159446 0.156553 0.709253 52 65 76 
-0.155599 0.157189 0.713726 52 65 76 
-0.151598 0.157145 0.713259 50 63 74 
-0.147686 0.156422 0.70788 50 63 74 
-0.143784 0.155689 0.70348 51 64 75 
-0.139782 0.155644 0.703013 50 63 74 
